ply
format ascii 1.0
element vertex 1292
property float x
property float y
property float z
property uchar red
property uchar green
property uchar blue
end_header
16.9052 -15.4191 380.682 255 255 255
14.1328 -18.9327 391.203 255 255 255
13.7252 -20.6075 390.65 255 255 255
-1.71289 -11.6578 398.638 255 255 255
14.0801 -14.2963 379.059 255 255 255
16.4303 -16.9511 381.019 255 255 255
26.459 -29.1401 403.287 255 255 255
-1.17487 -15.5104 399.084 255 255 255
2.86616 -10.5742 384.399 255 255 255
0.673318 -18.1116 402.688 255 255 255
2.30165 -17.6017 406.541 255 255 255
-1.29757 -10.2234 389.725 255 255 255
-1.57575 -17.4646 398.618 255 255 255
-2.96878 -22.7577 415.459 255 255 255
-1.16183 -13.3622 391.344 255 255 255
-3.47286 -13.784 392.844 255 255 255
6.60513 -11.8568 381.818 255 255 255
16.2908 -15.1232 383.086 255 255 255
17.9008 -19.7377 390.915 255 255 255
-0.352361 -12.9094 392.095 255 255 255
4.9102 -11.0956 382.437 255 255 255
6.56427 -12.6358 385.952 255 255 255
18.9984 -17.8864 387.186 255 255 255
16.098 -19.5362 389.389 255 255 255
14.7627 -24.947 415.987 255 255 255
2.37556 -16.7749 441.359 255 255 255
12.9253 -14.3187 383.875 255 255 255
-2.81587 -12.1171 393.923 255 255 255
6.63189 -11.7977 378.931 255 255 255
6.63869 -12.815 388.955 255 255 255
13.6077 -14.3824 377.491 255 255 255
11.7048 -23.176 404.908 255 255 255
12.7442 -14.282 381.21 255 255 255
13.0981 -14.5422 390.165 255 255 255
10.3778 -13.6312 390.343 255 255 255
16.1406 -20.9671 387.522 255 255 255
13.9527 -24.9662 407.656 255 255 255
-0.0968866 -30.4633 449.245 255 255 255
6.06045 -12.3972 385.322 255 255 255
-0.218468 -17.7017 399.544 255 255 255
12.9749 -16.691 386.942 255 255 255
7.08257 -14.1922 415.835 255 255 255
3.04958 -12.394 392.283 255 255 255
3.535 -13.3684 423.294 255 255 255
3.4292 -13.4126 395.175 255 255 255
0.900223 -10.0347 394.528 255 255 255
22.3866 -21.1192 410.613 255 255 255
34.7175 -33.5451 421.099 255 255 255
19.5625 -16.8428 387.34 255 255 255
16.698 -16.747 382.166 255 255 255
15.4379 -17.167 404.51 255 255 255
16.9694 -15.546 381.33 255 255 255
-2.23348 -16.0451 394.055 255 255 255
-1.3802 -14.1304 392.003 255 255 255
15.7122 -14.7033 379.464 255 255 255
12.2969 -18.0719 386.843 255 255 255
5.4756 -11.5746 384.415 255 255 255
5.43903 -11.5232 384.712 255 255 255
-2.51254 -12.6033 397.807 255 255 255
12.6187 -13.9666 380.161 255 255 255
12.4181 -13.6798 379.472 255 255 255
16.8785 -15.7812 392.077 255 255 255
-2.74589 -18.4702 400.269 255 255 255
12.6562 -14.1227 380.134 255 255 255
12.9713 -14.0791 379.153 255 255 255
0.801947 -13.9729 401.065 255 255 255
7.62487 -12.0615 378.805 255 255 255
22.8644 -17.9645 394.613 255 255 255
6.15719 -12.9544 386.935 255 255 255
3.33776 -13.0017 393.257 255 255 255
2.90566 -11.6064 391.528 255 255 255
-4.69491 -13.2064 393.717 255 255 255
9.36368 -14.115 409.788 255 255 255
12.64 -13.9949 381.673 255 255 255
20.1682 -16.7356 383.802 255 255 255
8.3579 -12.4451 380.401 255 255 255
17.1982 -15.9579 381.471 255 255 255
-1.10066 -9.92165 398.598 255 255 255
6.26006 -11.8009 384.194 255 255 255
1.13769 -12.8971 398.912 255 255 255
-0.327666 -9.73567 397.435 255 255 255
6.32123 -13.0473 387.291 255 255 255
-1.16944 -13.9646 395.807 255 255 255
9.43999 -12.6041 379.01 255 255 255
4.05612 -13.0687 395.951 255 255 255
16.7097 -15.2695 381.08 255 255 255
5.9898 -11.9668 385.145 255 255 255
2.23957 -11.6349 392.358 255 255 255
16.7917 -22.4704 390.588 255 255 255
12.8434 -17.1774 386.816 255 255 255
-2.00529 -15.0918 393.727 255 255 255
1.84436 -13.1363 394.033 255 255 255
-3.87197 -14.5926 392.392 255 255 255
12.0654 -15.5886 400.778 255 255 255
11.9791 -15.3637 400.962 255 255 255
12.6429 -14.9195 400.571 255 255 255
13.5534 -15.0493 386.948 255 255 255
11.7506 -15.3064 401.975 255 255 255
13.2428 -15.115 400.55 255 255 255
4.82633 -12.0402 386.078 255 255 255
13.5711 -15.251 399.593 255 255 255
2.04341 -11.681 392.325 255 255 255
12.9218 -15.6494 399.963 255 255 255
13.094 -15.7426 400.094 255 255 255
-3.43859 -15.2106 385.31 255 255 255
30.4544 -28.8157 413.211 255 255 255
-3.63756 -19.6091 400.181 255 255 255
-2.06961 -20.6277 401.375 255 255 255
16.0237 -17.2176 377.281 255 255 255
5.92928 -11.251 372.721 255 255 255
16.5866 -15.0019 375.029 255 255 255
16.7193 -20.8594 389.978 255 255 255
16.2752 -17.4738 379.906 255 255 255
5.81126 -11.0965 374.282 255 255 255
15.8065 -14.4304 374.605 255 255 255
12.6159 -22.4498 391.086 255 255 255
16.0492 -21.559 384.194 255 255 255
17.708 -18.478 389.394 255 255 255
30.4492 -32.4142 403.45 255 255 255
17.8038 -20.8027 383.805 255 255 255
-0.736571 -19.3148 402.206 255 255 255
-5.6741 -17.4187 396.469 255 255 255
2.56536 -15.9801 402.583 255 255 255
-2.79578 -15.4791 392.127 255 255 255
14.6634 -16.752 402.129 255 255 255
17.1044 -15.5399 381.057 255 255 255
-2.72726 -16.1462 395.309 255 255 255
-5.93811 -13.7111 393.418 255 255 255
-1.58452 -14.1857 392.664 255 255 255
14.6315 -20.6702 388.347 255 255 255
16.882 -21.4862 383.368 255 255 255
-0.415832 -25.2062 449.224 255 255 255
16.6762 -15.3124 378.627 255 255 255
2.38565 -9.83075 378.767 255 255 255
-16.138 -8.80068 412.621 255 255 255
0.313196 -15.0279 401.535 255 255 255
7.07521 -11.7746 375.032 255 255 255
5.07363 -11.1946 379.461 255 255 255
-0.766146 -15.0475 393.957 255 255 255
12.8695 -23.4855 418.628 255 255 255
6.82566 -11.5033 372.738 255 255 255
0.171072 -10.6501 382.384 255 255 255
2.02212 -9.71176 380.839 255 255 255
17.3149 -16.0029 387.347 255 255 255
-2.46558 -17.6025 392.765 255 255 255
5.44591 -11.5426 384.29 255 255 255
-2.09969 -23.8562 413.214 255 255 255
2.33397 -11.1552 380.228 255 255 255
5.29816 -11.3413 381.474 255 255 255
15.5842 -18.9853 391.476 255 255 255
-0.81512 -12.8042 393.998 255 255 255
-0.791964 -13.4765 398.462 255 255 255
11.7389 -13.3781 372.09 255 255 255
13.2195 -14.8154 379.766 255 255 255
-1.67411 -17.7222 398.224 255 255 255
19.8482 -22.2639 393.919 255 255 255
12.6939 -14.0723 380.095 255 255 255
-13.0165 -17.1727 405.435 255 255 255
13.5517 -13.9302 372.544 255 255 255
-0.734994 -9.56383 394.977 255 255 255
13.4017 -14.0939 374.849 255 255 255
-1.3981 -12.2364 390.222 255 255 255
-22.8385 -15.813 418.869 255 255 255
14.4577 -22.5526 389.731 255 255 255
5.43009 -33.5559 596.524 255 255 255
7.72465 -12.022 378.174 255 255 255
12.778 -13.9511 376.78 255 255 255
-1.31853 -10.6339 399.565 255 255 255
7.6594 -11.8301 376.179 255 255 255
18.8492 -16.8213 387.831 255 255 255
12.4717 -13.4614 371.866 255 255 255
12.5515 -13.7442 374.53 255 255 255
6.99518 -11.5522 373.196 255 255 255
18.8889 -22.5503 385.194 255 255 255
3.08715 -10.5249 381.148 255 255 255
-4.49549 -30.2468 451.866 255 255 255
19.132 -18.4676 387.069 255 255 255
7.38311 -11.7305 373.353 255 255 255
9.90488 -13.0725 384.52 255 255 255
15.5749 -21.3949 385.616 255 255 255
17.059 -21.0234 384.789 255 255 255
6.73567 -13.6518 395.453 255 255 255
-19.7706 -13.1484 410.487 255 255 255
11.9851 -13.351 371.809 255 255 255
13.7069 -25.7608 406.673 255 255 255
3.87539 -13.507 401.261 255 255 255
0.886961 -11.7278 400.435 255 255 255
19.8333 -17.8286 383.562 255 255 255
5.85708 -11.1625 373.678 255 255 255
22.0643 -19.7787 413.448 255 255 255
-2.70802 -21.2966 415.126 255 255 255
-5.62815 -13.4944 396.068 255 255 255
5.16651 -12.1827 395.911 255 255 255
2.61697 -10.0756 378.91 255 255 255
1.91299 -10.8158 379.086 255 255 255
9.65456 -14.3503 418.127 255 255 255
-2.86134 -10.4921 391.104 255 255 255
19.5527 -16.9289 382.545 255 255 255
17.0879 -15.9381 379.839 255 255 255
7.00185 -11.7557 376.366 255 255 255
8.34399 -12.4616 379.456 255 255 255
-10.0312 -14.6399 394.093 255 255 255
20.613 -17.3606 387.774 255 255 255
15.7852 -20.1538 389.497 255 255 255
16.5833 -21.1491 387.323 255 255 255
16.7252 -15.436 377.087 255 255 255
15.873 -14.5702 375.226 255 255 255
-1.51398 -9.5531 393.719 255 255 255
14.7666 -19.751 387.682 255 255 255
1.08331 -10.5395 399.505 255 255 255
-6.27003 -9.97742 391.988 255 255 255
-2.71016 -10.0685 389.083 255 255 255
2.80398 -10.3902 380.707 255 255 255
13.1853 -19.5663 389.557 255 255 255
12.6903 -20.8544 389.283 255 255 255
9.48439 -12.6703 379.15 255 255 255
16.5444 -15.3368 374.877 255 255 255
-2.16066 -10.9817 396.263 255 255 255
-7.4191 -14.4735 391.115 255 255 255
12.5799 -16.7158 396.849 255 255 255
4.52174 -13.9345 405.565 255 255 255
2.81313 -10.3451 380.935 255 255 255
16.8384 -15.3252 381.455 255 255 255
-2.34378 -9.77864 392.029 255 255 255
-9.89299 -11.7515 403.078 255 255 255
-10.4955 -13.7667 399.616 255 255 255
12.5504 -13.5394 372.414 255 255 255
6.57566 -12.5224 392.446 255 255 255
3.26958 -12.3655 400.608 255 255 255
-6.85339 -12.5289 397.702 255 255 255
15.8255 -14.3055 375.198 255 255 255
2.37525 -10.5058 378.836 255 255 255
16.1569 -22.1202 391.333 255 255 255
-8.47433 -15.0804 397.76 255 255 255
6.12711 -11.3792 372.64 255 255 255
16.1663 -14.3899 375.639 255 255 255
2.38875 -13.8791 402.369 255 255 255
2.28371 -10.6016 378.714 255 255 255
11.4652 -15.0569 394.546 255 255 255
11.4467 -14.8627 395.43 255 255 255
12.8426 -14.6326 395.545 255 255 255
11.2358 -14.8496 396.621 255 255 255
20.1263 -24.577 452.657 255 255 255
12.9615 -14.696 394.644 255 255 255
12.6311 -22.587 403.063 255 255 255
3.94314 -12.0777 400.079 255 255 255
13.4028 -15.0036 395.481 255 255 255
2.38341 -12.213 401.72 255 255 255
12.6641 -15.219 396.097 255 255 255
12.7528 -15.2702 394.847 255 255 255
-13.1539 -15.1228 391.47 255 255 255
18.8224 -16.7881 373.675 255 255 255
1.75194 -17.4971 402.923 255 255 255
16.228 -16.5324 374.82 255 255 255
15.6902 -16.8055 372.321 255 255 255
7.06166 -11.2275 367.799 255 255 255
5.68911 -10.7236 367.354 255 255 255
6.15692 -11.3237 372.649 255 255 255
12.9728 -13.4504 365.084 255 255 255
-1.82043 -17.3264 395.46 255 255 255
-8.99342 -13.9743 387.863 255 255 255
25.4229 -34.7448 411.637 255 255 255
0.199582 -19.1682 401.99 255 255 255
2.39021 -9.62237 372.081 255 255 255
-3.47274 -13.4591 391.396 255 255 255
12.5958 -13.4135 371.247 255 255 255
-7.29937 -12.8332 389.472 255 255 255
5.15121 -12.5281 408.72 255 255 255
1.47057 -9.30267 380.448 255 255 255
-8.40447 -11.7929 387.892 255 255 255
-2.25271 -11.6635 389.362 255 255 255
3.75367 -10.5955 378.039 255 255 255
13.5057 -22.6702 389.975 255 255 255
-8.77998 -7.53452 393.539 255 255 255
-2.11127 -9.41238 389.113 255 255 255
10.0947 -14.7066 426.956 255 255 255
1.73106 -20.4524 444.192 255 255 255
-1.33598 -12.2109 392.066 255 255 255
7.0641 -11.4279 371.236 255 255 255
-2.81953 -20.0735 395.702 255 255 255
17.318 -15.9049 378.467 255 255 255
16.6933 -15.473 374.986 255 255 255
11.4708 -12.607 366.296 255 255 255
7.2388 -11.7922 375.225 255 255 255
18.8703 -24.4912 385.357 255 255 255
-0.329822 -15.8316 399.623 255 255 255
32.0083 -33.6336 399.738 255 255 255
8.3666 -12.4436 377.659 255 255 255
5.56393 -10.9919 370.41 255 255 255
7.16547 -7.58579 409.134 255 255 255
-10.7643 -14.7888 396.207 255 255 255
6.83118 -11.1538 366.826 255 255 255
22.0375 -25.957 386.822 255 255 255
11.3118 -12.823 370.825 255 255 255
22.1299 -8.04131 448.989 255 255 255
7.70286 -11.4551 366.616 255 255 255
13.6275 -14.256 376.355 255 255 255
-0.0394293 -13.5513 400.415 255 255 255
-7.85369 -17.4116 398.904 255 255 255
11.3054 -16.1278 368.251 255 255 255
17.8801 -17.8108 369.921 255 255 255
-9.23366 -10.3638 391.328 255 255 255
16.4969 -15.0017 372.734 255 255 255
-7.87087 -13.8521 382.4 255 255 255
11.6763 -12.7921 368.759 255 255 255
12.1491 -13.7057 368.345 255 255 255
16.3245 -27.1113 434.329 255 255 255
-7.16129 -15.3237 386.467 255 255 255
-11.5237 -17.0884 401.117 255 255 255
10.9239 -12.5165 366.337 255 255 255
-3.60728 -8.42261 386.817 255 255 255
-17.8837 -5.89127 402.472 255 255 255
3.67228 -20.1444 497.745 255 255 255
-18.3698 -11.7258 416.142 255 255 255
-0.946601 -9.55039 376.112 255 255 255
-2.63181 -10.7774 384.24 255 255 255
11.493 -15.3552 367.927 255 255 255
2.67655 -11.0436 385.854 255 255 255
1.69489 -11.9785 402.133 255 255 255
11.8892 -15.6591 368.273 255 255 255
14.1472 -19.538 389.253 255 255 255
27.8986 -19.3536 379.443 255 255 255
18.1142 -18.6568 370.319 255 255 255
11.5698 -15.063 368.237 255 255 255
23.0058 -25.705 386.519 255 255 255
5.39153 -10.6707 367.101 255 255 255
-15.9449 -10.3932 408.677 255 255 255
11.31 -15.1241 367.985 255 255 255
-9.86211 -13.1988 387.975 255 255 255
5.60424 -10.8912 366.121 255 255 255
1.54475 -10.9926 386.047 255 255 255
5.2218 -10.6246 366.736 255 255 255
19.2443 -22.3881 385.65 255 255 255
-22.4215 -9.76803 405.312 255 255 255
17.9543 -15.656 374.362 255 255 255
-2.94612 -14.4958 392.623 255 255 255
-7.47033 -14.4264 391.922 255 255 255
12.0559 -16.192 389.998 255 255 255
12.287 -14.0494 368.377 255 255 255
4.88615 -14.9016 421.034 255 255 255
-16.4936 -9.37672 401.297 255 255 255
27.2091 -32.0384 401.146 255 255 255
3.54025 -10.9968 387.763 255 255 255
-20.1586 -6.15121 403.805 255 255 255
11.5671 -16.1023 368.179 255 255 255
-6.77075 -13.7848 387.523 255 255 255
9.02575 -12.8852 361.665 255 255 255
12.3782 -13.0855 369.933 255 255 255
16.2543 -15.5269 372.404 255 255 255
18.5141 -15.8343 369.85 255 255 255
-11.9738 -13.6991 402.649 255 255 255
11.7285 -15.0974 368.344 255 255 255
21.2058 -16.2775 376.839 255 255 255
7.12864 -13.0686 399.599 255 255 255
11.7798 -15.1479 368.296 255 255 255
-14.8044 -10.2676 408.844 255 255 255
2.06967 -10.8392 385.459 255 255 255
5.45637 -10.6758 367.123 255 255 255
-15.7769 -7.14655 400.971 255 255 255
7.06906 -11.228 367.054 255 255 255
16.3088 -14.5567 375.892 255 255 255
-17.9116 -9.41638 398.289 255 255 255
-9.59988 -8.24332 392.26 255 255 255
-9.11559 -15.1192 399.286 255 255 255
6.02987 -11.2406 371.647 255 255 255
16.3398 -14.6086 376.095 255 255 255
-16.1332 -6.98689 401.35 255 255 255
-16.343 -7.57406 400.701 255 255 255
3.00374 -14.585 409.476 255 255 255
11.1921 -15.925 408.858 255 255 255
-0.925258 -9.59571 392.537 255 255 255
10.9438 -14.528 387.195 255 255 255
-9.73587 -8.23242 391.827 255 255 255
11.4831 -15.7721 368.083 255 255 255
11.7578 -25.3643 403.309 255 255 255
10.9424 -14.3622 388.301 255 255 255
12.4405 -14.16 389.621 255 255 255
-0.101102 -20.2339 426.235 255 255 255
-20.8371 -9.08566 402.985 255 255 255
10.6704 -14.3361 388.453 255 255 255
11.7635 -26.4475 403.651 255 255 255
-0.623518 -9.0838 376.193 255 255 255
-19.8459 -8.43495 403.26 255 255 255
-19.7975 -8.39343 404.435 255 255 255
12.4337 -14.1988 388.196 255 255 255
-20.7444 -9.96113 402.508 255 255 255
7.75255 -23.4964 547.384 255 255 255
1.97723 -10.531 385.723 255 255 255
12.8771 -14.6321 388.989 255 255 255
3.40156 -12.9033 407.312 255 255 255
12.0661 -14.6617 388.427 255 255 255
12.2246 -14.756 387.952 255 255 255
27.0265 -28.3677 387.738 255 255 255
56.4015 -40.6209 404.654 255 255 255
11.5649 -13.0451 362.054 255 255 255
7.43568 -10.9425 359.732 255 255 255
8.6878 -11.5172 359.984 255 255 255
20.1239 -16.3693 365.937 255 255 255
-8.42465 -12.5013 386.408 255 255 255
0.603924 -16.7695 401.012 255 255 255
35.0132 -27.7393 386.191 255 255 255
34.7678 -25.6078 386.096 255 255 255
24.2399 -18.4281 376.325 255 255 255
30.2717 -26.794 387.114 255 255 255
11.9792 -13.0087 357.695 255 255 255
18.3258 -17.5519 371.857 255 255 255
-4.42125 -20.2776 394.097 255 255 255
22.3641 -25.3166 385.209 255 255 255
-7.20729 -19.1718 394.596 255 255 255
6.07276 -11.0292 360.525 255 255 255
-2.76015 -14.6738 392.522 255 255 255
15.4773 -15.4983 390.617 255 255 255
12.4031 -23.4977 389.338 255 255 255
-0.699441 -9.38564 388.808 255 255 255
2.72889 -9.63681 366.241 255 255 255
-1.89214 -16.539 397.687 255 255 255
-4.38915 -8.21444 380.518 255 255 255
53.4247 -43.3805 407.969 255 255 255
-1.45706 -7.60588 372.395 255 255 255
-3.85573 -11.341 387.54 255 255 255
49.2542 -36.2557 400.289 255 255 255
17.7062 -15.644 364.078 255 255 255
13.0398 -11.532 388.137 255 255 255
-1.50823 -11.4025 390.366 255 255 255
11.8825 -13.0031 358.289 255 255 255
-5.54321 -8.97776 389.259 255 255 255
-17.3104 -4.65813 396.301 255 255 255
12.3178 -12.9002 357.79 255 255 255
10.4995 -14.589 364.54 255 255 255
11.4557 -12.7301 359.887 255 255 255
-8.58089 -14.2768 387.626 255 255 255
2.97158 -9.67431 367.51 255 255 255
-3.57271 -22.7408 403.378 255 255 255
-0.663959 -10.3149 401.918 255 255 255
7.47142 -11.1897 362.887 255 255 255
11.2034 -12.4537 364.051 255 255 255
-4.63824 -18.3431 395.069 255 255 255
18.2 -16.9245 383.629 255 255 255
17.9818 -21.3157 384.941 255 255 255
11.3214 -12.4513 360.31 255 255 255
-6.67869 -11.8453 386.825 255 255 255
6.2132 -10.953 366.801 255 255 255
13.2863 -21.9718 393.36 255 255 255
25.5248 -18.0591 375.157 255 255 255
7.58857 -11.0824 360.927 255 255 255
4.97083 -10.2463 360.965 255 255 255
-17.7635 -10.1007 399.428 255 255 255
0.162742 -9.05679 377.127 255 255 255
80.711 -3.28554 486.021 255 255 255
-3.15378 -8.05909 374.363 255 255 255
1.46616 -13.9337 400.149 255 255 255
8.15645 -11.2765 360.484 255 255 255
15.7368 -14.9594 364.6 255 255 255
9.69262 -12.7279 381.23 255 255 255
14.4589 -24.6617 386.397 255 255 255
16.1911 -15.133 370.082 255 255 255
-1.02801 -22.0416 419.726 255 255 255
37.1037 -38.355 402.875 255 255 255
16.3456 -22.0567 385.521 255 255 255
21.152 -25.3653 390.24 255 255 255
11.3434 -12.5275 361.498 255 255 255
-14.406 -14.5583 390.545 255 255 255
-2.24345 -9.72975 386.975 255 255 255
7.75944 -11.6695 371.082 255 255 255
-12.4279 -14.6806 400.782 255 255 255
-9.12273 -17.378 391.556 255 255 255
11.5524 -15.6705 383.318 255 255 255
12.3318 -14.1258 368.274 255 255 255
5.23286 -15.7586 426.228 255 255 255
26.9449 -31.7792 393.661 255 255 255
11.8091 -12.9742 371.222 255 255 255
-15.8931 -9.20963 401.141 255 255 255
11.3601 -24.4173 404.118 255 255 255
19.0589 -28.6402 393.041 255 255 255
19.6314 -17.5147 383.011 255 255 255
24.912 -31.0782 397.862 255 255 255
17.6252 -18.0798 369.737 255 255 255
4.27503 -11.6079 394.853 255 255 255
-9.99082 -17.6584 400.057 255 255 255
11.9962 -12.802 358.897 255 255 255
-17.5228 -6.73454 400.598 255 255 255
8.32278 -11.3975 362.242 255 255 255
-3.05095 -11.0834 371.365 255 255 255
11.3972 -12.6875 360.926 255 255 255
-2.41045 -10.2017 370.772 255 255 255
-8.35177 -15.9991 382.093 255 255 255
-15.0621 -13.2564 392.159 255 255 255
-7.35286 -7.88583 389.03 255 255 255
17.594 -16.0099 375.366 255 255 255
27.878 -30.3479 394.978 255 255 255
18.2724 -15.7377 369.312 255 255 255
7.63185 -13.623 408.105 255 255 255
2.16356 -11.3186 397.033 255 255 255
5.30593 -10.4577 362.235 255 255 255
-9.03933 -12.4225 385.055 255 255 255
-11.2152 -12.1561 404.954 255 255 255
11.0228 -12.2378 359.575 255 255 255
-16.2142 -6.98359 403.158 255 255 255
17.3446 -14.9281 379.75 255 255 255
11.0805 -12.368 361.818 255 255 255
8.53716 -11.6454 364.31 255 255 255
-16.3548 -7.74429 394.595 255 255 255
-16.537 -10.8929 393.032 255 255 255
-1.25502 -9.81981 376.604 255 255 255
11.9524 -12.8688 357.64 255 255 255
-12.8163 -15.515 387.668 255 255 255
17.3937 -15.02 380.153 255 255 255
-15.5807 -6.28427 402.405 255 255 255
-15.6582 -7.6933 400.474 255 255 255
10.5219 -14.0895 381.433 255 255 255
-9.51069 -15.3653 384.033 255 255 255
9.1484 -11.9272 368.62 255 255 255
-8.352 -8.29251 389.228 255 255 255
10.5407 -28.9414 402.302 255 255 255
10.467 -13.9006 381.845 255 255 255
12.1841 -13.7339 385.549 255 255 255
-2.51671 -10.6607 370.747 255 255 255
5.72702 -10.7717 358.904 255 255 255
-18.5373 -11.2003 397.945 255 255 255
-10.9126 -13.0492 380.761 255 255 255
10.1831 -13.9199 382.152 255 255 255
16.0276 -14.4502 374.224 255 255 255
-18.6597 -8.60597 402.239 255 255 255
-19.7339 -12.9081 397.011 255 255 255
-15.9911 -14.386 389.92 255 255 255
12.0034 -13.7499 382.246 255 255 255
-3.35983 -8.77613 374.493 255 255 255
-18.6796 -11.9009 397.931 255 255 255
-6.25341 -7.6564 387.725 255 255 255
-0.0511339 -14.4358 369.199 255 255 255
10.9288 -12.3281 361.861 255 255 255
12.4176 -14.2355 383.084 255 255 255
-17.1101 -5.70431 398.319 255 255 255
-15.7411 -7.2102 394.19 255 255 255
-3.3451 -8.68755 374.523 255 255 255
3.51563 -13.5191 420.187 255 255 255
11.6011 -14.2 382.36 255 255 255
11.8155 -14.3329 382.275 255 255 255
11.7671 -12.8912 362.129 255 255 255
-5.17159 -6.95231 369.605 255 255 255
23.4938 -23.0621 365.166 255 255 255
24.9834 -22.5031 365.988 255 255 255
6.40644 -10.4727 357.004 255 255 255
2.71415 -17.4119 413.698 255 255 255
23.0796 -23.8368 367.443 255 255 255
-2.80202 -19.5572 401.12 255 255 255
16.004 -21.3818 388.435 255 255 255
-9.21255 -16.1449 388.277 255 255 255
3.81778 -10.0488 366.085 255 255 255
-3.68035 -8.12602 369.103 255 255 255
-8.54134 -13.2942 381.645 255 255 255
5.83683 -10.112 354.181 255 255 255
9.6948 -12.1066 366.769 255 255 255
-1.60566 -11.6933 398.483 255 255 255
-3.26044 -16.671 393.402 255 255 255
-4.28269 -6.35077 369.954 255 255 255
-8.68779 -11.3628 386.362 255 255 255
21.0507 -28.3846 384.23 255 255 255
-5.80121 -8.42544 385.026 255 255 255
6.72215 -10.4331 354.052 255 255 255
18.3268 -22.6708 385.184 255 255 255
4.1016 -9.80582 357.621 255 255 255
-6.88117 -19.0637 393.539 255 255 255
11.1207 -13.0737 350.7 255 255 255
3.45166 -9.51097 356.534 255 255 255
11.7042 -12.6601 359.028 255 255 255
-4.27731 -12.2569 391.668 255 255 255
17.8093 -29.3696 394.835 255 255 255
7.83607 -10.8915 354.94 255 255 255
-4.41498 -25.2536 407.203 255 255 255
12.3477 -13.1536 370.317 255 255 255
10.9788 -12.1187 355.522 255 255 255
16.8534 -24.7845 389.081 255 255 255
19.81 -16.9339 381.954 255 255 255
14.5655 -13.0094 358.578 255 255 255
18.8382 -15.8708 370.274 255 255 255
-10.3347 -20.6413 396.539 255 255 255
-50.9747 -8.28937 431.528 255 255 255
-12.4576 -13.5252 403.219 255 255 255
4.57498 -10.0596 359.152 255 255 255
11.5358 -12.3476 355.353 255 255 255
23.0233 -25.9533 391.979 255 255 255
-25.2296 -4.63725 396.756 255 255 255
-2.42565 -7.81693 375.264 255 255 255
18.4693 -15.6667 372.671 255 255 255
14.2137 -22.9687 387.961 255 255 255
7.98473 -14.307 425.635 255 255 255
20.7805 -30.7924 392.46 255 255 255
11.8519 -15.1372 368.338 255 255 255
18.7667 -18.3373 385.526 255 255 255
-14.0569 -16.3833 387.372 255 255 255
-22.7257 -6.36369 397.357 255 255 255
12.303 -12.6134 351.259 255 255 255
17.8604 -18.2925 373.231 255 255 255
-24.3585 -2.19017 398.822 255 255 255
-13.5295 -9.98833 406.045 255 255 255
8.17883 -11.2676 358.653 255 255 255
7.74997 -10.7632 353.13 255 255 255
-1.86681 -23.4049 418.084 255 255 255
10.5758 -12.8796 350.31 255 255 255
0.916037 -28.2759 449.201 255 255 255
11.2283 -12.7309 350.254 255 255 255
-2.4342 -9.68961 383.791 255 255 255
3.20772 -12.0425 400.238 255 255 255
10.9378 -12.7178 350.298 255 255 255
11.1444 -13.057 350.246 255 255 255
10.9277 -12.4505 350.285 255 255 255
11.001 -12.9116 350.28 255 255 255
10.722 -12.6034 350.314 255 255 255
-36.5146 -6.72526 412.465 255 255 255
5.33242 -10.4811 362.426 255 255 255
9.76094 -11.4591 358.042 255 255 255
6.82387 -10.6626 356.061 255 255 255
-2.94758 -12.1215 369.395 255 255 255
-0.314534 -8.63123 373.128 255 255 255
0.660071 -8.22274 364.087 255 255 255
10.9854 -12.1568 358.016 255 255 255
-22.5325 -1.97714 401.14 255 255 255
-5.53858 -8.92581 381.417 255 255 255
16.3711 -14.7637 377.443 255 255 255
16.7597 -20.6181 384.936 255 255 255
3.6218 -9.79913 355.571 255 255 255
11.2347 -27.3531 390.53 255 255 255
11.0374 -12.3257 360.963 255 255 255
-18.5733 -11.0173 396.12 255 255 255
-3.71386 -9.1107 383.877 255 255 255
4.80525 -9.80889 355.933 255 255 255
5.85829 -11.044 372.29 255 255 255
-4.2682 -9.24117 369.848 255 255 255
11.156 -12.3458 358.497 255 255 255
12.079 -12.861 357.818 255 255 255
5.73113 -11.0931 372.714 255 255 255
19.0206 -28.5004 391.696 255 255 255
-9.5623 -14.935 386.331 255 255 255
-10.138 -7.87092 390.285 255 255 255
9.86516 -14.5323 386.049 255 255 255
5.52436 -10.684 367.754 255 255 255
10.0902 -13.6343 375.804 255 255 255
-8.70488 -14.5025 385.182 255 255 255
9.25146 -12.0534 369.173 255 255 255
-10.0984 -10.2107 385.176 255 255 255
9.99582 -13.4451 375.811 255 255 255
11.4547 -13.1725 377.23 255 255 255
13.9763 -15.0651 388.935 255 255 255
4.88261 -10.1341 360.567 255 255 255
-2.79259 -12.0454 370.435 255 255 255
-25.8521 -13.1383 404.56 255 255 255
10.679 -12.765 350.306 255 255 255
9.71499 -13.499 376.395 255 255 255
-13.0698 -14.4794 386.281 255 255 255
-5.1185 -18.7734 392.983 255 255 255
-12.8861 -14.5895 386.206 255 255 255
15.7506 -14.1313 374.378 255 255 255
13.0059 -15.3243 385.816 255 255 255
-15.2227 -12.9008 390.565 255 255 255
-13.738 -14.2243 386.863 255 255 255
11.623 -13.2859 376.711 255 255 255
-7.22169 -8.28327 382.983 255 255 255
-16.4233 -12.0799 394.744 255 255 255
-1.746 -11.3208 367.78 255 255 255
-10.4092 -6.90829 382.353 255 255 255
10.9231 -12.2327 361.254 255 255 255
11.9026 -13.7728 376.648 255 255 255
-16.9369 -5.87425 400.485 255 255 255
-17.2551 -6.66213 396.279 255 255 255
-2.86459 -8.70099 374.056 255 255 255
3.98115 -14.0969 429.665 255 255 255
11.1202 -13.7027 376.192 255 255 255
7.91156 -11.0253 356.48 255 255 255
11.2991 -13.8281 375.679 255 255 255
-5.96492 -6.58382 366.538 255 255 255
17.4425 -16.2716 355.016 255 255 255
22.6058 -24.6469 364.229 255 255 255
-30.6297 -7.70184 405.457 255 255 255
-0.0568447 -8.33297 359.164 255 255 255
5.2749 -10.4827 363.298 255 255 255
17.3291 -17.3676 354.737 255 255 255
23.4473 -22.7566 364.979 255 255 255
10.4922 -11.5081 361.614 255 255 255
9.42594 -11.0813 346.335 255 255 255
12.0539 -25.5688 392.594 255 255 255
7.20537 -10.4952 349.526 255 255 255
13.0227 -12.3605 345.591 255 255 255
31.8536 -26.3904 387.769 255 255 255
22.236 -17.022 368.76 255 255 255
15.3059 -13.1756 349.166 255 255 255
32.9248 -26.6053 384.366 255 255 255
14.571 -13.1027 349.48 255 255 255
-0.947107 -7.86185 358.803 255 255 255
10.6073 -11.6545 346.479 255 255 255
-0.730183 -13.4616 391.678 255 255 255
-11.158 -15.5188 385.248 255 255 255
17.6123 -14.7882 355.031 255 255 255
7.35539 -10.3802 346.857 255 255 255
11.3873 -11.8055 345.756 255 255 255
12.3223 -12.3891 345.258 255 255 255
6.01462 -10.2525 354.307 255 255 255
-4.49261 -6.02358 362.245 255 255 255
29.1632 -32.186 401.305 255 255 255
13.8501 -12.6877 350.099 255 255 255
33.7217 -38.2179 396.562 255 255 255
-3.22621 -20.4126 394.984 255 255 255
6.82008 -10.6728 355.558 255 255 255
-9.74573 -12.4428 386.647 255 255 255
14.6157 -14.2942 351.773 255 255 255
-0.00205503 -8.79829 371.321 255 255 255
31.2498 -32.7053 394.379 255 255 255
-7.69768 -11.9631 394.031 255 255 255
-0.931903 -7.44527 370.361 255 255 255
13.7384 -12.4998 347.713 255 255 255
9.36962 -11.1871 348.866 255 255 255
10.9322 -12.1866 357.409 255 255 255
-20.0542 -2.86799 397.337 255 255 255
-6.68434 -8.72881 387.476 255 255 255
11.2084 -11.9612 345.951 255 255 255
7.09726 -11.2915 367.626 255 255 255
9.30214 -11.0466 347.243 255 255 255
-2.0547 -10.5606 389.515 255 255 255
10.3059 -11.4942 347.389 255 255 255
18.0309 -14.4793 353.266 255 255 255
-0.352787 -7.601 363.069 255 255 255
11.3088 -27.4005 388.629 255 255 255
4.76996 -9.93825 355.998 255 255 255
15.2104 -23.1904 387.206 255 255 255
4.31908 -9.47216 350.181 255 255 255
34.6268 -35.4288 389.638 255 255 255
-8.74275 -23.416 401.755 255 255 255
15.0751 -14.5281 357.187 255 255 255
-2.18541 -24.6672 397.203 255 255 255
-2.66418 -7.7325 370.983 255 255 255
-11.4097 -18.0223 392.114 255 255 255
8.4796 -11.6871 362.143 255 255 255
10.734 -11.8345 347.709 255 255 255
10.3829 -11.6593 345.274 255 255 255
10.2784 -11.45 346.457 255 255 255
13.8525 -12.6532 349.234 255 255 255
6.62835 -10.2207 350.007 255 255 255
25.6551 -31.9109 387.261 255 255 255
10.7895 -12.1991 350.696 255 255 255
-20.2903 -10.6804 394.597 255 255 255
-41.8912 -13.4052 410.123 255 255 255
18.6413 -12.4104 360.612 255 255 255
7.73045 -10.8049 352.55 255 255 255
-13.6169 -7.57188 390.291 255 255 255
11.2259 -12.8431 350.289 255 255 255
0.71305 -14.24 369.134 255 255 255
13.1691 -17.4166 388.53 255 255 255
8.5798 -10.9788 349.556 255 255 255
24.3915 -26.5637 374.954 255 255 255
10.7793 -11.9009 350.237 255 255 255
15.0943 -13.4262 353.873 255 255 255
-40.4784 -10.4594 407.69 255 255 255
4.63527 -9.74965 351.744 255 255 255
16.455 -13.8483 353.377 255 255 255
-0.228872 -8.12833 356.395 255 255 255
-34.2276 -3.98057 410.211 255 255 255
4.5962 -9.70612 351.842 255 255 255
2.0979 -8.87376 354.502 255 255 255
-14.8258 -4.97915 390.013 255 255 255
11.9651 -12.358 350.304 255 255 255
14.7302 -13.0111 349.048 255 255 255
13.7596 -12.6414 353.746 255 255 255
5.85947 -11.1358 374.697 255 255 255
11.5196 -12.3126 350.311 255 255 255
7.45348 -10.5342 350.369 255 255 255
11.31 -13.1822 350.186 255 255 255
-46.41 -4.14634 421.007 255 255 255
20.6941 -29.9107 386.421 255 255 255
-6.69521 -6.00614 366.458 255 255 255
-24.9048 -1.9488 398.466 255 255 255
10.3184 -11.5651 349.226 255 255 255
14.4758 -13.0675 352.283 255 255 255
8.88976 -13.432 369.864 255 255 255
4.50461 -9.67083 351.455 255 255 255
9.51171 -13.1199 368.286 255 255 255
6.02383 -10.2303 350.803 255 255 255
11.1237 -13.1805 349.701 255 255 255
14.0341 -12.7581 351.073 255 255 255
11.3311 -12.1548 350.247 255 255 255
-2.66061 -10.6397 369.076 255 255 255
10.8641 -11.7076 345.428 255 255 255
11.3457 -12.3354 346.881 255 255 255
-30.6341 -2.27231 405.749 255 255 255
9.43776 -12.9503 368.479 255 255 255
-41.39 -12.023 412.456 255 255 255
10.83 -12.6742 369.616 255 255 255
11.3512 -13.6957 368.687 255 255 255
11.3227 -12.3421 346.849 255 255 255
-35.4716 -6.49218 410.32 255 255 255
-37.911 -6.34925 413.892 255 255 255
10.702 -12.8033 350.256 255 255 255
9.17572 -13.0107 369.138 255 255 255
-4.81567 -13.4 367.953 255 255 255
14.8487 -12.5714 348.321 255 255 255
-5.35421 -13.617 369.514 255 255 255
10.7402 -13.1025 350.398 255 255 255
-8.19352 -5.96348 366.667 255 255 255
15.9954 -13.065 354.87 255 255 255
-12.262 -17.241 383.685 255 255 255
13.77 -12.6383 350.576 255 255 255
14.9779 -13.1787 353.169 255 255 255
-23.2168 -13.2717 408.23 255 255 255
11.1821 -12.83 370.761 255 255 255
-11.3779 -7.40814 392.633 255 255 255
19.8822 -30.0431 385.007 255 255 255
-8.21488 -16.0714 376.266 255 255 255
-14.9599 -10.0784 398.249 255 255 255
-59.643 -6.90837 443.116 255 255 255
7.10535 -10.351 346.943 255 255 255
20.6582 -29.9532 385.501 255 255 255
-9.57065 -10.1942 387.498 255 255 255
11.4415 -13.3412 370.64 255 255 255
-3.752 -8.66558 368.143 255 255 255
-11.754 -17.5587 387.783 255 255 255
4.98241 -14.2103 422.594 255 255 255
10.6422 -13.2445 370.088 255 255 255
24.4884 -32.1456 562.967 255 255 255
10.7853 -13.3571 369.198 255 255 255
13.2817 -11.9397 341.036 255 255 255
8.99935 -11.0418 349.183 255 255 255
5.02351 -9.26214 340.498 255 255 255
-16.7125 -11.0851 391.759 255 255 255
14.8256 -17.2342 344.649 255 255 255
13.5843 -14.5741 342.054 255 255 255
1.65869 -15.6937 401.713 255 255 255
16.5737 -17.1057 354.883 255 255 255
11.5106 -11.5311 340.334 255 255 255
18.9344 -19.2335 351.716 255 255 255
24.2081 -24.7795 367.086 255 255 255
6.63419 -9.83477 340.189 255 255 255
17.6484 -13.8011 347.335 255 255 255
-32.6553 -1.91397 400.814 255 255 255
17.6474 -16.8124 354.044 255 255 255
14.0208 -12.4923 341.382 255 255 255
19.3731 -14.409 346.947 255 255 255
-16.2921 -4.85887 369.833 255 255 255
16.2453 -17.5639 344.673 255 255 255
5.31779 -9.40118 341.016 255 255 255
19.3609 -15.7371 357.57 255 255 255
30.9368 -25.4112 370.606 255 255 255
11.1845 -11.5117 338.919 255 255 255
10.2602 -11.1737 338.884 255 255 255
13.5234 -11.9278 340.765 255 255 255
16.0778 -13.7036 353.438 255 255 255
-46.66 -10.5203 418.682 255 255 255
2.59909 -8.18406 351.332 255 255 255
13.8875 -21.0428 389.075 255 255 255
22.4658 -23.5742 367.216 255 255 255
-0.278264 -8.05412 354.648 255 255 255
-1.72569 -15.0829 392.956 255 255 255
19.6568 -17.6941 347.105 255 255 255
21.2064 -15.6885 347.854 255 255 255
22.1286 -26.3662 368.894 255 255 255
10.2306 -11.1541 340.934 255 255 255
-6.46724 -14.6542 392.824 255 255 255
10.4447 -11.4315 339.366 255 255 255
-1.26953 -20.5309 402.927 255 255 255
1.75091 -8.44237 347.87 255 255 255
-5.21105 -5.48923 356.846 255 255 255
-0.506367 -7.70116 349.79 255 255 255
-0.340438 -7.31666 351.261 255 255 255
-36.4449 -3.20486 413.792 255 255 255
22.0937 -16.4905 351.187 255 255 255
10.4937 -11.5076 343.009 255 255 255
-10.3051 -5.172 365.256 255 255 255
4.6558 -9.75536 352.449 255 255 255
3.7182 -9.69152 348.999 255 255 255
13.5072 -23.9654 386.466 255 255 255
25.7662 -30.5698 410.684 255 255 255
-8.6253 -17.5505 390.928 255 255 255
-27.1619 -11.1088 398.833 255 255 255
-8.64972 -6.88213 375.93 255 255 255
11.5547 -12.1321 349.017 255 255 255
9.82099 -10.9723 342.634 255 255 255
14.2227 -12.5514 342.166 255 255 255
14.7316 -13.0434 346.937 255 255 255
3.42893 -8.69809 343.319 255 255 255
14.0195 -13.1945 342.149 255 255 255
5.99058 -11.3201 378.523 255 255 255
14.3456 -12.7549 344.598 255 255 255
-49.5523 -15.2436 414.76 255 255 255
10.6422 -11.7768 352.723 255 255 255
11.4538 -11.6331 343.443 255 255 255
7.53509 -10.5059 351.365 255 255 255
10.176 -27.6134 387.773 255 255 255
9.91108 -11.2342 344.567 255 255 255
11.8619 -13.2204 350.263 255 255 255
-44.2181 -4.82698 419.652 255 255 255
10.3465 -11.2311 340.021 255 255 255
9.34161 -14.271 343.552 255 255 255
19.2719 -14.981 351.372 255 255 255
-12.4131 -15.1416 393.387 255 255 255
-6.40967 -6.20638 366.201 255 255 255
12.1174 -13.7406 365.54 255 255 255
10.3349 -27.783 404.776 255 255 255
-47.0354 -16.5797 417.051 255 255 255
-2.97874 -9.56843 371.409 255 255 255
10.5099 -11.3706 338.502 255 255 255
28.8555 -34.9979 393.385 255 255 255
19.5598 -29.9526 481.94 255 255 255
-25.7574 -1.92399 401.01 255 255 255
-15.1364 -7.51088 398.552 255 255 255
3.10247 -8.76543 346.345 255 255 255
7.02471 -10.0777 344.488 255 255 255
-3.32074 -11.054 383.916 255 255 255
9.85562 -10.9535 341.562 255 255 255
21.6728 -24.6517 363.631 255 255 255
-13.906 -3.45413 369.304 255 255 255
14.1584 -12.4838 343.371 255 255 255
17.1414 -14.423 351.61 255 255 255
8.43249 -12.9815 363.541 255 255 255
-38.8584 -2.84498 410.98 255 255 255
21.6803 -17.3974 350.179 255 255 255
10.9707 -11.5656 339.282 255 255 255
24.642 -32.2339 387.197 255 255 255
3.78779 -9.01361 343.148 255 255 255
9.13752 -12.7183 363.627 255 255 255
13.3624 -11.9174 340.347 255 255 255
6.08916 -10.2837 351 255 255 255
11.7625 -13.0941 345.768 255 255 255
15.1745 -17.3871 344.197 255 255 255
19.2986 -19.9849 355.793 255 255 255
9.95648 -13.8123 342.461 255 255 255
18.0229 -14.0632 348.883 255 255 255
17.4953 -15.9719 351.042 255 255 255
3.69992 -9.04313 350.202 255 255 255
9.87214 -11.118 340.987 255 255 255
11.08 -11.8219 340.304 255 255 255
9.85238 -11.1593 341.372 255 255 255
9.03431 -12.5251 363.416 255 255 255
-43.3983 -12.3775 417.143 255 255 255
10.3047 -12.1778 363.022 255 255 255
-18.1847 -5.09622 392.233 255 255 255
6.85585 -9.92799 340.754 255 255 255
14.6129 -12.8602 348.638 255 255 255
10.9725 -13.3165 363.704 255 255 255
32.8764 -27.598 370.296 255 255 255
13.1934 -11.951 341.509 255 255 255
7.83321 -10.2841 342.513 255 255 255
9.93603 -13.956 342.477 255 255 255
10.6018 -11.4723 340.295 255 255 255
10.301 -13.1445 342.672 255 255 255
4.98056 -10.1762 360.166 255 255 255
19.0744 -14.7283 348.98 255 255 255
-37.3876 -6.46018 415.06 255 255 255
-45.1895 -5.86973 427.856 255 255 255
9.63279 -14.6842 342.556 255 255 255
-21.9968 -13.1489 398.138 255 255 255
-0.0658321 -7.4345 347.929 255 255 255
8.74371 -12.5888 363.846 255 255 255
10.2255 -12.1684 342.849 255 255 255
13.3553 -12.0839 342.245 255 255 255
-17.1135 -6.13728 391.486 255 255 255
-7.45099 -15.8688 374.504 255 255 255
10.4322 -14.0341 363.216 255 255 255
9.71748 -14.0389 342.254 255 255 255
-21.9948 -1.12229 393.072 255 255 255
10.6765 -12.1517 342.913 255 255 255
17.2125 -30.4347 388.978 255 255 255
14.1617 -12.7532 350.193 255 255 255
-5.50762 -12.9903 368.859 255 255 255
10.5343 -12.6802 342.86 255 255 255
10.8219 -12.3801 365.431 255 255 255
-3.39132 -8.96221 369.476 255 255 255
-4.16361 -11.556 368.498 255 255 255
-1.0383 -14.8035 370.77 255 255 255
7.09946 -10.3981 346.743 255 255 255
-5.13976 -11.415 368.947 255 255 255
11.1741 -12.1538 362.186 255 255 255
10.9875 -12.9151 364.787 255 255 255
3.83224 -8.87268 341.704 255 255 255
-5.06135 -7.5826 369.191 255 255 255
-5.1762 -15.5673 370.676 255 255 255
10.1678 -12.7709 363.999 255 255 255
10.3571 -12.903 363.409 255 255 255
15.7391 -14.5589 336.332 255 255 255
13.5812 -12.0092 332.718 255 255 255
-23.7977 -7.54677 370.128 255 255 255
16.081 -13.7616 335.789 255 255 255
8.50399 -10.2995 337.861 255 255 255
12.3506 -11.1939 331.904 255 255 255
-19.9346 -6.35815 373.216 255 255 255
16.2168 -13.8733 337.419 255 255 255
16.0258 -14.4831 335.897 255 255 255
1.67292 -15.2241 429.148 255 255 255
-3.04484 -6.28735 343.026 255 255 255
11.0638 -10.8595 331.355 255 255 255
16.9006 -20.0995 353.085 255 255 255
-12.223 -19.2035 389.831 255 255 255
23.5886 -22.2657 367.238 255 255 255
13.8434 -12.2101 335.754 255 255 255
21.7234 -33.3625 384.98 255 255 255
15.7373 -15.1912 337.352 255 255 255
12.2589 -11.2632 331.395 255 255 255
16.2442 -19.0181 344.621 255 255 255
5.77304 -9.06076 333.083 255 255 255
13.0618 -11.7478 333.748 255 255 255
-13.6955 -3.88325 369.766 255 255 255
13.8369 -12.177 337.778 255 255 255
-19.0891 -9.62444 372.011 255 255 255
15.3091 -13.8244 348.725 255 255 255
-2.79185 -23.5082 408.162 255 255 255
-28.7303 -5.36643 394.717 255 255 255
13.6465 -13.9656 339.533 255 255 255
20.5605 -20.8901 343.678 255 255 255
10.9207 -10.746 331.9 255 255 255
9.02608 -11.7033 329.439 255 255 255
15.606 -15.6966 336.912 255 255 255
11.1539 -11.5097 338.235 255 255 255
-1.6326 -7.17801 346.429 255 255 255
-0.626003 -7.83345 352.877 255 255 255
9.82671 -10.4564 332.028 255 255 255
13.458 -12.2093 333.805 255 255 255
27.606 -33.6862 394.626 255 255 255
11.2432 -11.1363 335.063 255 255 255
-17.4304 -6.27303 361.688 255 255 255
27.396 -28.3518 386.447 255 255 255
4.88925 -9.05753 336.096 255 255 255
13.6835 -12.2511 333.273 255 255 255
-3.91098 -14.6355 392.582 255 255 255
-17.221 -4.41437 371.35 255 255 255
-0.545683 -9.66833 394.965 255 255 255
17.6219 -19.1406 341.913 255 255 255
20.2207 -19.8292 341.565 255 255 255
30.1311 -24.7993 368.94 255 255 255
-0.828523 -7.23754 340.428 255 255 255
-12.5813 -3.70678 360.788 255 255 255
12.5487 -11.2905 332.664 255 255 255
24.7478 -21.704 350.355 255 255 255
15.8559 -19.0143 342.649 255 255 255
15.3653 -14.3713 337.28 255 255 255
10.9468 -10.8249 332.763 255 255 255
-7.04078 -4.44715 355.91 255 255 255
9.39418 -16.2978 349.834 255 255 255
13.6528 -12.4274 334.829 255 255 255
6.1683 -10.351 354.783 255 255 255
15.2053 -14.1793 352.946 255 255 255
16.9444 -18.7037 342.71 255 255 255
5.27523 -15.0675 342.308 255 255 255
5.61889 -9.32629 337.539 255 255 255
4.65335 -8.82957 332.46 255 255 255
19.7421 -17.8665 345.565 255 255 255
14.5863 -20.0705 349.361 255 255 255
-8.80101 -14.9291 390.109 255 255 255
19.315 -17.4821 346.654 255 255 255
16.538 -17.8859 347.88 255 255 255
-0.797066 -17.1338 399.484 255 255 255
3.61217 -8.67758 339.042 255 255 255
12.9778 -11.6646 337.36 255 255 255
20.6645 -30.6432 394.28 255 255 255
11.5416 -12.1206 351.202 255 255 255
14.4475 -12.9303 342.346 255 255 255
17.666 -15.9432 351.574 255 255 255
-24.6354 -5.77689 375.944 255 255 255
4.25729 -9.31841 346.797 255 255 255
14.3738 -18.423 343.309 255 255 255
9.9041 -10.724 335.638 255 255 255
13.6787 -12.8394 337.155 255 255 255
-25.746 -13.3196 398.609 255 255 255
12.7247 -11.483 334.375 255 255 255
-15.3124 -9.38386 361.828 255 255 255
15.5602 -15.7493 335.895 255 255 255
-6.20673 -10.7093 381.07 255 255 255
10.9172 -11.2115 335.939 255 255 255
11.1916 -11.4527 342.707 255 255 255
10.131 -12.9283 342.954 255 255 255
-20.4112 -5.17297 388.136 255 255 255
11.6005 -15.93 368.469 255 255 255
-74.0881 -11.4121 439.942 255 255 255
11.0618 -30.0264 403.408 255 255 255
10.0488 -10.6731 333.513 255 255 255
-4.84158 -6.48258 361.019 255 255 255
2.27216 -25.513 451.607 255 255 255
-42.4377 -16.4974 411.959 255 255 255
-41.9482 -15.1014 401.03 255 255 255
-3.3305 -26.7189 397.745 255 255 255
8.47125 -11.9258 354.729 255 255 255
-38.6437 -12.6317 410.686 255 255 255
6.41537 -15.2545 342.105 255 255 255
9.50056 -10.5779 337.732 255 255 255
-16.818 -4.54002 362.435 255 255 255
-19.2659 -5.11875 395.362 255 255 255
-15.6906 -2.78886 362.473 255 255 255
-17.0396 -9.0729 394.907 255 255 255
6.96103 -9.9866 340.215 255 255 255
7.72882 -9.84378 332.486 255 255 255
14.4743 -12.8354 347.669 255 255 255
3.48591 -8.55084 334.189 255 255 255
15.4318 -15.8996 338.338 255 255 255
4.904 -9.26417 339.046 255 255 255
12.7829 -11.4917 335.397 255 255 255
13.3954 -11.8333 333.066 255 255 255
10.5591 -10.7832 333.379 255 255 255
-7.42443 -4.23992 349.395 255 255 255
-8.86761 -10.1025 349.53 255 255 255
18.0969 -18.5314 342.378 255 255 255
12.5645 -11.2935 331.909 255 255 255
10.8399 -10.7123 332.174 255 255 255
-16.6054 -6.0773 365.067 255 255 255
10.5988 -10.7465 333.204 255 255 255
19.7811 -14.9529 351.638 255 255 255
3.66296 -8.99056 344.399 255 255 255
-32.0146 -7.00932 404.159 255 255 255
25.9581 -33.3285 396.31 255 255 255
-9.29699 -11.031 349.552 255 255 255
3.76074 -8.90079 342.059 255 255 255
-0.213824 -7.47403 345.465 255 255 255
-3.72382 -32.9061 450.231 255 255 255
3.68005 -8.6184 332.363 255 255 255
4.97472 -9.15326 338.758 255 255 255
18.9911 -30.5957 397.743 255 255 255
12.5759 -11.358 333.235 255 255 255
12.2241 -10.9718 334.349 255 255 255
7.76372 -18.2709 349.109 255 255 255
13.7464 -13.0171 335.371 255 255 255
-5.60997 -8.71794 360.812 255 255 255
-9.04208 -10.3786 349.587 255 255 255
17.8355 -29.5507 392.369 255 255 255
6.87688 -9.63502 337.307 255 255 255
-4.72278 -24.3147 399.604 255 255 255
13.5499 -12.7846 334.845 255 255 255
-16.5017 -3.46367 381.786 255 255 255
10.9429 -12.1 342.979 255 255 255
10.0237 -14.488 342.487 255 255 255
-4.97574 -13.0623 366.913 255 255 255
10.8865 -12.6777 343.063 255 255 255
10.1511 -11.7573 356.64 255 255 255
-3.78579 -9.27115 371.094 255 255 255
9.59409 -14.792 342.497 255 255 255
-4.97439 -12.0356 371.65 255 255 255
-30.6878 -9.2004 397.679 255 255 255
21.709 -19.8478 342.041 255 255 255
9.95141 -13.7236 342.877 255 255 255
10.7933 -11.8196 356.541 255 255 255
10.3242 -12.3721 356.403 255 255 255
3.92806 -9.14533 340.435 255 255 255
3.73648 -8.79965 343.603 255 255 255
10.724 -26.2356 372.984 255 255 255
-4.69547 -7.72731 366.999 255 255 255
-6.06248 -16.0991 374.47 255 255 255
9.47918 -25.7039 375.552 255 255 255
4.79477 -15.6832 459.137 255 255 255
9.57014 -12.1602 356.022 255 255 255
7.97082 -11.0453 358.288 255 255 255
9.85592 -12.3476 356.081 255 255 255
9.41386 -9.8651 323.677 255 255 255
10.6984 -10.5088 326.719 255 255 255
18.0931 -21.7397 342.201 255 255 255
48.0599 -39.3578 367.481 255 255 255
-0.102081 -20.2642 424.064 255 255 255
14.9665 -12.0632 327.653 255 255 255
15.3092 -12.0838 327.241 255 255 255
14.7202 -17.3143 344.413 255 255 255
14.5855 -12.8986 347.625 255 255 255
2.46963 -7.68174 327.813 255 255 255
6.17945 -9.39154 331.045 255 255 255
13.3579 -13.6164 334.639 255 255 255
13.5774 -11.8889 331.406 255 255 255
5.07468 -8.53767 324.027 255 255 255
16.6828 -17.8304 343.927 255 255 255
12.8231 -11.5119 335.296 255 255 255
13.542 -11.9183 333.386 255 255 255
10.7061 -10.6705 332.667 255 255 255
-6.04635 -11.6415 336.896 255 255 255
16.6549 -16.7318 330.922 255 255 255
26.5431 -25.2243 345.626 255 255 255
-4.18894 -7.83268 335.188 255 255 255
-1.50816 -6.94822 337.876 255 255 255
9.33535 -9.86714 324.308 255 255 255
9.58742 -10.0731 327.288 255 255 255
28.0793 -30.1737 403.424 255 255 255
1.01429 -7.65276 335.247 255 255 255
-1.19794 -6.30837 334.033 255 255 255
20.2289 -19.6773 340.773 255 255 255
-7.42472 -5.67616 363.632 255 255 255
-2.28187 -12.7989 391.037 255 255 255
18.2627 -14.3388 335.001 255 255 255
26.8623 -19.8639 347.783 255 255 255
-21.0279 -9.88382 367.481 255 255 255
21.3994 -21.173 341.044 255 255 255
18.7473 -18.9402 343.521 255 255 255
10.3275 -11.0551 337.221 255 255 255
18.5337 -18.3793 372.512 255 255 255
16.6555 -14.4889 331.11 255 255 255
20.2878 -14.0984 333.218 255 255 255
13.4288 -11.7576 329.489 255 255 255
17.0148 -13.071 332.376 255 255 255
15.7296 -14.2775 334.659 255 255 255
10.4654 -10.4117 327.359 255 255 255
18.3879 -33.5176 394.579 255 255 255
9.47869 -44.8774 618.17 255 255 255
24.5657 -20.8449 345.002 255 255 255
16.9696 -19.9157 341.408 255 255 255
-6.06837 -5.33381 345.212 255 255 255
12.4362 -11.0745 327.003 255 255 255
-20.2051 -8.09705 370.116 255 255 255
20.0367 -21.2225 342.456 255 255 255
12.5416 -10.9929 325.709 255 255 255
5.10772 -10.1644 356.442 255 255 255
10.728 -10.2808 324.244 255 255 255
22.1807 -17.9175 343.291 255 255 255
15.0306 -19.0381 343.5 255 255 255
12.1863 -10.7866 324.327 255 255 255
8.60374 -9.71043 324.614 255 255 255
5.31224 -14.8544 341.132 255 255 255
16.992 -15.3449 330.584 255 255 255
14.1485 -20.2978 342.669 255 255 255
5.79213 -8.73698 324.019 255 255 255
13.5689 -20.8615 347.138 255 255 255
-2.60278 -12.2368 369.985 255 255 255
16.1527 -15.3925 330.788 255 255 255
4.44254 -8.45947 328.165 255 255 255
-10.4497 -24.5031 398.253 255 255 255
-5.57302 -11.0438 334.909 255 255 255
19.3594 -14.8991 351.385 255 255 255
3.86062 -9.0653 342.56 255 255 255
-4.75177 -8.62276 335.161 255 255 255
9.18174 -10.0585 329.748 255 255 255
16.6467 -12.8512 330.77 255 255 255
-3.09915 -7.4646 368.431 255 255 255
-36.4585 -17.1983 395.822 255 255 255
-26.0408 -7.63002 393.685 255 255 255
4.88849 -8.81203 331.259 255 255 255
-9.76872 -8.52651 346.523 255 255 255
20.549 -27.0166 375.181 255 255 255
-5.22542 -10.243 335.128 255 255 255
-3.6248 -7.06214 335.059 255 255 255
-9.3857 -11.0745 350.508 255 255 255
-25.8914 -14.0505 406.154 255 255 255
-19.9047 -6.93092 390.209 255 255 255
11.4586 -13.0079 353.215 255 255 255
5.98354 -8.97676 328.152 255 255 255
-11.3943 -5.30634 358.247 255 255 255
7.73779 -9.72162 330.305 255 255 255
6.94785 -15.7795 342.937 255 255 255
14.724 -13.0223 328.239 255 255 255
-11.604 -3.9831 353.006 255 255 255
-12.8043 -5.89064 355.817 255 255 255
15.5441 -15.6981 338.1 255 255 255
-2.07317 -6.17619 334.735 255 255 255
-0.414057 -7.2637 345.697 255 255 255
3.08288 -8.11654 331.044 255 255 255
10.64 -10.3097 326.071 255 255 255
5.03397 -9.26922 338.758 255 255 255
19.9236 -32.156 386.008 255 255 255
12.4218 -11.0299 328.551 255 255 255
16.1892 -15.9215 330.229 255 255 255
19.4337 -19.8632 342.983 255 255 255
15.0501 -13.2506 327.752 255 255 255
8.92402 -9.8431 326.874 255 255 255
13.5881 -12.8016 334.641 255 255 255
18.1291 -16.4137 331.688 255 255 255
-4.68748 -9.67547 335.336 255 255 255
-42.2864 -13.3077 400.071 255 255 255
-23.7339 -3.42612 392.461 255 255 255
-4.36322 -6.99872 335.243 255 255 255
16.0047 -16.5473 331.137 255 255 255
4.43364 -8.75325 331.09 255 255 255
6.99122 -9.58296 336.891 255 255 255
-0.810731 -6.67395 335.223 255 255 255
15.1941 -12.6345 328.253 255 255 255
21.4394 -22.5252 341.68 255 255 255
17.1452 -16.6018 330.663 255 255 255
17.4759 -16.7788 330.859 255 255 255
5.75387 -8.83749 324.71 255 255 255
16.454 -15.7801 330.241 255 255 255
-5.63365 -10.9717 336.057 255 255 255
21.9924 -30.7677 390.962 255 255 255
-15.4267 -6.48705 357.372 255 255 255
16.6571 -13.5042 334.969 255 255 255
7.41905 -9.35459 328.018 255 255 255
-1.88656 -6.76188 337.311 255 255 255
-4.2654 -6.71413 335.156 255 255 255
-18.3366 -5.76821 361.935 255 255 255
14.9367 -13.2765 327.981 255 255 255
-7.46254 -28.0798 397.06 255 255 255
13.2895 -12.1182 329.447 255 255 255
-3.30356 -5.88785 333.829 255 255 255
14.3622 -32.0953 387.395 255 255 255
17.4138 -13.8811 336.148 255 255 255
9.56693 -11.1737 348.365 255 255 255
3.15974 -8.15446 324.739 255 255 255
16.8924 -18.0336 342.519 255 255 255
-3.47203 -5.82933 334.389 255 255 255
9.77713 -15.2325 343.59 255 255 255
9.45063 -18.0719 348.684 255 255 255
13.1513 -12.1295 329.098 255 255 255
-14.965 -17.8304 390.851 255 255 255
-17.1751 -9.95985 370.561 255 255 255
20.0535 -19.6322 341.878 255 255 255
13.0938 -11.2295 325.495 255 255 255
3.98413 -14.7052 342.145 255 255 255
